1.0,649.0,519.0,376.0,341.0
1.0,616.0,489.0,267.0,188.0
1.0,670.0,530.0,355.0,279.0
1.0,736.0,563.0,420.0,368.0
1.0,698.0,541.0,391.0,333.0
1.0,666.0,630.0,357.0,269.0
1.0,519.0,541.0,293.0,193.0
1.0,551.0,420.0,272.0,220.0
1.0,551.0,408.0,277.0,220.0
1.0,613.0,455.0,317.0,247.0
1.0,518.0,553.0,313.0,182.0
1.0,476.0,430.0,188.0,109.0
1.0,563.0,569.0,244.0,139.0
1.0,620.0,473.0,256.0,226.0
1.0,657.0,663.0,432.0,288.0
1.0,676.0,512.0,445.0,335.0
1.0,649.0,579.0,360.0,294.0
1.0,637.0,552.0,355.0,305.0
1.0,742.0,592.0,501.0,443.0
1.0,633.0,501.0,306.0,265.0
1.0,653.0,532.0,405.0,349.0
1.0,686.0,506.0,365.0,333.0
1.0,630.0,508.0,349.0,292.0
1.0,485.0,501.0,281.0,187.0
1.0,633.0,534.0,345.0,289.0
1.0,685.0,542.0,403.0,370.0
1.0,650.0,518.0,381.0,342.0
1.0,645.0,582.0,367.0,290.0
1.0,728.0,519.0,352.0,333.0
1.0,765.0,582.0,342.0,267.0
1.0,702.0,575.0,376.0,313.0
1.0,531.0,555.0,335.0,233.0
1.0,766.0,619.0,496.0,443.0
1.0,634.0,506.0,313.0,247.0
1.0,666.0,621.0,472.0,399.0
1.0,560.0,408.0,274.0,221.0
1.0,447.0,406.0,193.0,119.0
1.0,1189.0,1388.0,874.0,260.0
1.0,760.0,536.0,310.0,243.0
1.0,502.0,479.0,376.0,260.0
1.0,596.0,497.0,328.0,287.0
1.0,753.0,598.0,425.0,380.0
1.0,605.0,629.0,468.0,331.0
1.0,549.0,418.0,269.0,195.0
1.0,601.0,586.0,293.0,188.0
1.0,783.0,580.0,438.0,406.0
1.0,665.0,584.0,363.0,272.0
1.0,613.0,452.0,289.0,240.0
1.0,669.0,540.0,345.0,297.0
1.0,601.0,509.0,356.0,309.0
1.0,602.0,451.0,294.0,252.0
1.0,666.0,513.0,362.0,330.0
1.0,836.0,677.0,516.0,500.0
1.0,700.0,596.0,454.0,385.0
1.0,614.0,510.0,381.0,290.0
1.0,634.0,604.0,297.0,195.0
1.0,639.0,537.0,393.0,334.0
1.0,945.0,850.0,392.0,284.0
1.0,586.0,463.0,301.0,248.0
1.0,742.0,639.0,386.0,327.0
1.0,896.0,809.0,369.0,297.0
1.0,652.0,508.0,298.0,187.0
1.0,588.0,595.0,445.0,315.0
1.0,478.0,500.0,257.0,160.0
1.0,613.0,463.0,298.0,251.0
1.0,724.0,612.0,515.0,427.0
1.0,678.0,526.0,351.0,285.0
1.0,707.0,692.0,386.0,294.0
1.0,545.0,573.0,335.0,215.0
1.0,593.0,607.0,310.0,181.0
1.0,769.0,615.0,472.0,441.0
1.0,622.0,634.0,495.0,351.0
1.0,694.0,580.0,490.0,350.0
1.0,674.0,835.0,478.0,222.0
1.0,626.0,494.0,320.0,280.0
1.0,625.0,537.0,409.0,340.0
1.0,652.0,520.0,316.0,209.0
1.0,730.0,728.0,379.0,260.0
1.0,558.0,412.0,275.0,218.0
1.0,617.0,525.0,362.0,307.0
1.0,666.0,578.0,383.0,320.0
1.0,637.0,545.0,396.0,352.0
1.0,601.0,650.0,298.0,169.0
1.0,491.0,508.0,375.0,257.0
1.0,714.0,610.0,382.0,336.0
1.0,560.0,548.0,267.0,157.0
1.0,595.0,613.0,266.0,137.0
1.0,545.0,539.0,225.0,119.0
1.0,617.0,551.0,336.0,285.0
1.0,628.0,506.0,344.0,314.0
1.0,606.0,531.0,404.0,335.0
1.0,604.0,418.0,289.0,237.0
1.0,615.0,464.0,306.0,279.0
1.0,1083.0,1307.0,917.0,354.0
1.0,742.0,563.0,402.0,360.0
1.0,635.0,467.0,320.0,252.0
1.0,691.0,582.0,371.0,288.0
1.0,705.0,629.0,393.0,285.0
1.0,575.0,457.0,308.0,225.0
1.0,588.0,556.0,299.0,192.0
1.0,699.0,643.0,391.0,303.0
1.0,737.0,617.0,376.0,291.0
1.0,579.0,431.0,259.0,169.0
1.0,650.0,510.0,343.0,298.0
1.0,626.0,530.0,371.0,341.0
1.0,820.0,684.0,315.0,230.0
1.0,619.0,631.0,296.0,181.0
1.0,574.0,400.0,257.0,206.0
1.0,735.0,623.0,388.0,316.0
1.0,909.0,798.0,402.0,297.0
1.0,555.0,516.0,241.0,140.0
1.0,648.0,633.0,494.0,354.0
1.0,719.0,596.0,431.0,384.0
1.0,696.0,549.0,424.0,373.0
1.0,834.0,653.0,308.0,241.0
1.0,668.0,578.0,352.0,285.0
1.0,686.0,544.0,341.0,283.0
1.0,753.0,533.0,305.0,244.0
1.0,732.0,569.0,401.0,382.0
1.0,1090.0,1287.0,892.0,337.0
1.0,823.0,651.0,317.0,218.0
1.0,1058.0,1096.0,463.0,222.0
1.0,769.0,602.0,309.0,222.0
1.0,602.0,636.0,286.0,157.0
1.0,794.0,694.0,342.0,258.0
1.0,777.0,649.0,524.0,490.0
1.0,584.0,442.0,264.0,216.0
1.0,640.0,643.0,479.0,361.0
1.0,593.0,606.0,463.0,326.0
1.0,597.0,634.0,267.0,147.0
1.0,574.0,586.0,321.0,213.0
1.0,610.0,535.0,398.0,347.0
1.0,684.0,539.0,452.0,352.0
1.0,516.0,567.0,298.0,171.0
1.0,573.0,456.0,247.0,188.0
1.0,596.0,440.0,283.0,1.0
1.0,806.0,634.0,327.0,235.0
1.0,574.0,572.0,283.0,184.0
1.0,751.0,670.0,488.0,423.0
1.0,609.0,461.0,312.0,274.0
1.0,546.0,505.0,207.0,115.0
1.0,662.0,545.0,409.0,356.0
1.0,527.0,569.0,279.0,158.0
1.0,578.0,446.0,307.0,251.0
1.0,615.0,473.0,296.0,249.0
1.0,625.0,457.0,304.0,1.0
1.0,671.0,585.0,373.0,296.0
1.0,512.0,460.0,183.0,121.0
1.0,933.0,868.0,378.0,245.0
1.0,865.0,710.0,341.0,241.0
1.0,544.0,580.0,321.0,190.0
1.0,579.0,424.0,273.0,1.0
1.0,731.0,634.0,381.0,335.0
1.0,630.0,517.0,348.0,282.0
1.0,739.0,963.0,712.0,212.0
1.0,591.0,518.0,339.0,270.0
1.0,697.0,543.0,370.0,356.0
1.0,861.0,725.0,529.0,557.0
1.0,760.0,651.0,517.0,497.0
1.0,828.0,699.0,316.0,241.0
1.0,591.0,483.0,265.0,198.0
1.0,674.0,574.0,497.0,388.0
1.0,920.0,822.0,379.0,254.0
1.0,552.0,572.0,284.0,187.0
1.0,741.0,568.0,315.0,240.0
1.0,637.0,599.0,384.0,312.0
1.0,864.0,724.0,350.0,248.0
1.0,739.0,576.0,425.0,387.0
1.0,557.0,450.0,339.0,250.0
1.0,672.0,572.0,355.0,270.0
1.0,616.0,623.0,278.0,155.0
1.0,568.0,554.0,284.0,170.0
1.0,600.0,466.0,308.0,244.0
1.0,594.0,435.0,287.0,1.0
1.0,741.0,574.0,408.0,379.0
1.0,559.0,570.0,299.0,163.0
1.0,757.0,573.0,452.0,429.0
1.0,1156.0,1261.0,597.0,215.0
1.0,829.0,651.0,442.0,341.0
1.0,857.0,698.0,334.0,245.0
1.0,727.0,578.0,419.0,375.0
1.0,733.0,651.0,394.0,325.0
1.0,640.0,557.0,332.0,252.0
1.0,596.0,425.0,294.0,239.0
1.0,584.0,632.0,394.0,276.0
1.0,503.0,513.0,257.0,163.0
1.0,629.0,635.0,292.0,195.0
1.0,812.0,642.0,320.0,256.0
1.0,573.0,555.0,229.0,126.0
1.0,705.0,543.0,376.0,348.0
1.0,605.0,586.0,299.0,193.0
1.0,667.0,540.0,359.0,294.0
1.0,695.0,525.0,376.0,313.0
1.0,542.0,536.0,394.0,284.0
1.0,612.0,462.0,314.0,269.0
1.0,560.0,568.0,357.0,223.0
1.0,851.0,682.0,335.0,268.0
1.0,745.0,666.0,460.0,405.0
1.0,575.0,422.0,295.0,245.0
1.0,790.0,635.0,302.0,223.0
1.0,605.0,636.0,290.0,157.0
1.0,587.0,455.0,301.0,254.0
1.0,631.0,634.0,360.0,259.0
1.0,692.0,537.0,284.0,206.0
1.0,645.0,523.0,377.0,340.0
1.0,651.0,594.0,368.0,288.0
1.0,854.0,698.0,350.0,266.0
1.0,615.0,452.0,309.0,266.0
1.0,697.0,567.0,459.0,360.0
1.0,985.0,977.0,409.0,228.0
1.0,548.0,537.0,318.0,217.0
1.0,662.0,580.0,293.0,192.0
1.0,611.0,557.0,390.0,339.0
1.0,919.0,782.0,372.0,290.0
1.0,604.0,457.0,308.0,248.0
1.0,630.0,516.0,358.0,279.0
1.0,576.0,639.0,374.0,232.0
1.0,647.0,566.0,280.0,179.0
1.0,633.0,496.0,364.0,330.0
1.0,623.0,508.0,415.0,327.0
1.0,797.0,604.0,308.0,249.0
1.0,785.0,609.0,486.0,398.0
1.0,635.0,740.0,414.0,183.0
1.0,634.0,610.0,338.0,243.0
1.0,625.0,482.0,342.0,254.0
1.0,666.0,625.0,434.0,320.0
1.0,577.0,423.0,282.0,245.0
1.0,777.0,606.0,414.0,318.0
1.0,790.0,641.0,532.0,498.0
1.0,747.0,621.0,397.0,353.0
1.0,514.0,527.0,283.0,172.0
1.0,590.0,459.0,307.0,269.0
1.0,597.0,498.0,363.0,298.0
1.0,693.0,589.0,416.0,389.0
1.0,757.0,639.0,483.0,443.0
1.0,860.0,699.0,342.0,254.0
1.0,636.0,477.0,310.0,264.0
1.0,694.0,538.0,399.0,352.0
1.0,695.0,538.0,404.0,339.0
1.0,600.0,603.0,344.0,272.0
1.0,649.0,572.0,364.0,292.0
2.0,6725.0,6668.0,6853.0,7522.0
2.0,2678.0,2547.0,2214.0,4331.0
2.0,2776.0,2651.0,2686.0,3481.0
2.0,4133.0,4419.0,4571.0,5563.0
2.0,3300.0,3312.0,3417.0,3800.0
2.0,7560.0,7452.0,7438.0,7644.0
2.0,1926.0,2242.0,2340.0,3556.0
2.0,8652.0,8661.0,8782.0,9134.0
2.0,7623.0,7302.0,7151.0,7014.0
2.0,3321.0,3251.0,2998.0,4755.0
2.0,5399.0,5356.0,5403.0,6255.0
2.0,3762.0,3551.0,3451.0,4243.0
2.0,4628.0,4701.0,4835.0,6249.0
2.0,6578.0,6398.0,6301.0,6803.0
2.0,7402.0,7376.0,7564.0,8198.0
2.0,11291.0,11000.0,10986.0,11164.0
2.0,5578.0,5678.0,5793.0,6461.0
2.0,5334.0,5240.0,5317.0,5862.0
2.0,2581.0,2727.0,2696.0,4288.0
2.0,5634.0,5742.0,5968.0,6759.0
2.0,8444.0,7851.0,7456.0,8195.0
2.0,2815.0,2761.0,2656.0,4169.0
2.0,4515.0,4395.0,4164.0,5242.0
2.0,4486.0,4517.0,4562.0,5930.0
2.0,3950.0,3988.0,4145.0,5506.0
2.0,6813.0,6618.0,6567.0,6878.0
2.0,4563.0,4909.0,5133.0,6408.0
2.0,2724.0,2965.0,2950.0,4443.0
2.0,3941.0,3981.0,3904.0,5150.0
2.0,3289.0,3705.0,4132.0,4846.0
2.0,2017.0,2128.0,2101.0,2443.0
2.0,7920.0,7810.0,7886.0,8162.0
2.0,8021.0,8006.0,8126.0,8656.0
2.0,9681.0,9461.0,9446.0,9541.0
2.0,7144.0,6971.0,6886.0,6668.0
2.0,9420.0,9184.0,9280.0,9633.0
2.0,5729.0,5659.0,5685.0,6490.0
2.0,2753.0,2703.0,2683.0,4345.0
2.0,4227.0,3942.0,3562.0,3804.0
2.0,6896.0,6788.0,6709.0,7068.0
2.0,2457.0,2431.0,2221.0,3511.0
2.0,7519.0,7441.0,7420.0,7618.0
2.0,5648.0,5573.0,5506.0,6323.0
2.0,6874.0,6567.0,6312.0,7470.0
2.0,3238.0,3254.0,3263.0,4683.0
2.0,4264.0,4206.0,4265.0,4890.0
2.0,8232.0,8076.0,8032.0,8064.0
2.0,5268.0,5356.0,5589.0,6441.0
2.0,10569.0,10216.0,9899.0,10106.0
2.0,4127.0,4229.0,4288.0,5755.0
2.0,4872.0,4991.0,5186.0,5913.0
2.0,9362.0,9086.0,9043.0,9248.0
2.0,7174.0,7131.0,7204.0,7921.0
2.0,6460.0,6272.0,6316.0,6630.0
2.0,5912.0,5789.0,5832.0,6539.0
2.0,4467.0,4537.0,4663.0,5731.0
2.0,5535.0,5592.0,5634.0,6533.0
2.0,5638.0,5551.0,5427.0,6680.0
2.0,2779.0,2677.0,2580.0,3305.0
2.0,8523.0,8473.0,8516.0,9123.0
2.0,8858.0,8919.0,9181.0,9998.0
2.0,5286.0,5263.0,5277.0,6093.0
2.0,8269.0,8094.0,8193.0,7933.0
2.0,6373.0,6346.0,6341.0,7189.0
2.0,5291.0,5470.0,5577.0,6714.0
2.0,2716.0,3028.0,3313.0,3541.0
2.0,5795.0,5729.0,5899.0,6451.0
2.0,1764.0,1802.0,1638.0,2720.0
2.0,5465.0,5368.0,5309.0,5533.0
2.0,2852.0,2963.0,3079.0,3636.0
2.0,5905.0,5646.0,5504.0,5989.0
2.0,3389.0,3352.0,3418.0,4669.0
2.0,8789.0,8587.0,8350.0,8580.0
2.0,7955.0,7799.0,7786.0,8560.0
2.0,6431.0,6431.0,6550.0,7476.0
2.0,4409.0,4485.0,4741.0,6003.0
2.0,4316.0,4374.0,4513.0,5705.0
2.0,8523.0,8372.0,8360.0,8437.0
2.0,4315.0,4559.0,4772.0,6045.0
2.0,7206.0,6915.0,6876.0,7061.0
2.0,5407.0,5355.0,5505.0,5910.0
2.0,3693.0,3728.0,3789.0,5108.0
2.0,6099.0,5963.0,5938.0,6471.0
2.0,6865.0,6656.0,6475.0,6526.0
2.0,2012.0,2287.0,2622.0,3914.0
2.0,1921.0,1965.0,1901.0,2996.0
2.0,8013.0,7805.0,7872.0,8145.0
2.0,5783.0,5778.0,5851.0,6821.0
2.0,6958.0,6921.0,7038.0,7388.0
2.0,8787.0,8498.0,8351.0,8576.0
2.0,7186.0,6734.0,6189.0,7171.0
2.0,8975.0,8850.0,8863.0,9513.0
2.0,7168.0,6940.0,6969.0,7123.0
2.0,4074.0,4066.0,4033.0,4283.0
2.0,2930.0,2837.0,2437.0,2597.0
2.0,6548.0,6577.0,6685.0,7093.0
2.0,9703.0,9527.0,9657.0,9983.0
2.0,7707.0,7576.0,7617.0,8201.0
2.0,4803.0,4339.0,4154.0,5456.0
2.0,8822.0,8762.0,8959.0,9476.0
2.0,6946.0,6895.0,6959.0,7295.0
2.0,7671.0,7484.0,7570.0,7568.0
2.0,2639.0,3028.0,3276.0,4946.0
2.0,10061.0,9873.0,9921.0,10475.0
2.0,3091.0,3256.0,3353.0,4580.0
2.0,2903.0,2933.0,2891.0,4321.0
2.0,9678.0,9616.0,9676.0,9991.0
2.0,7562.0,7505.0,7610.0,7955.0
2.0,3405.0,3377.0,3159.0,3189.0
2.0,1075.0,1228.0,1323.0,2693.0
2.0,3540.0,3607.0,3681.0,5015.0
2.0,5540.0,5669.0,5824.0,7117.0
2.0,4747.0,4918.0,5024.0,6174.0
2.0,10507.0,10409.0,10481.0,10344.0
2.0,10633.0,10509.0,10559.0,10485.0
2.0,3854.0,3616.0,3415.0,5005.0
2.0,6898.0,6845.0,6882.0,8055.0
2.0,4005.0,3806.0,3643.0,3910.0
2.0,4938.0,4829.0,4700.0,6154.0
2.0,6085.0,6104.0,6122.0,6655.0
2.0,6664.0,6575.0,6610.0,6904.0
2.0,7425.0,7612.0,7812.0,8607.0
2.0,8609.0,8507.0,8495.0,8540.0
2.0,9476.0,9418.0,9426.0,9819.0
2.0,5770.0,5686.0,5710.0,6938.0
2.0,5109.0,5492.0,5714.0,5809.0
2.0,2666.0,2768.0,2734.0,4265.0
2.0,9485.0,9323.0,9524.0,9921.0
2.0,5272.0,5241.0,5205.0,6468.0
2.0,8482.0,8546.0,8662.0,8720.0
2.0,7321.0,7145.0,7232.0,7619.0
2.0,10464.0,9999.0,10002.0,10815.0
2.0,11461.0,11261.0,11428.0,11124.0
2.0,5851.0,5826.0,5898.0,6452.0
2.0,3817.0,3727.0,3608.0,3477.0
2.0,7678.0,7683.0,7833.0,8268.0
2.0,8861.0,8651.0,8624.0,8573.0
2.0,4446.0,4528.0,4594.0,5828.0
2.0,9546.0,9568.0,9757.0,9876.0
2.0,5905.0,5756.0,5661.0,6111.0
2.0,5797.0,5896.0,6118.0,6951.0
2.0,4730.0,4785.0,4749.0,6027.0
2.0,2951.0,2828.0,2461.0,2553.0
2.0,8498.0,8374.0,8401.0,8875.0
2.0,4604.0,4534.0,4483.0,5871.0
2.0,5175.0,5141.0,5215.0,6060.0
2.0,4389.0,4265.0,4123.0,4119.0
2.0,6673.0,6772.0,7074.0,7669.0
2.0,7922.0,7716.0,7656.0,8325.0
2.0,2961.0,3153.0,3130.0,4162.0
2.0,4075.0,4162.0,4244.0,5262.0
2.0,4443.0,4437.0,4391.0,5772.0
2.0,8389.0,8374.0,8514.0,8755.0
2.0,5474.0,5418.0,5553.0,6004.0
2.0,6918.0,6809.0,6721.0,7270.0
2.0,6144.0,6024.0,5951.0,6914.0
2.0,5312.0,5284.0,5323.0,6236.0
2.0,4199.0,4471.0,4791.0,5778.0
2.0,5022.0,5004.0,5186.0,5236.0
2.0,6937.0,6922.0,6969.0,7254.0
2.0,7848.0,7753.0,7793.0,7742.0
2.0,6898.0,6892.0,6964.0,7611.0
2.0,9248.0,9134.0,9103.0,9062.0
2.0,8911.0,8701.0,8702.0,9393.0
2.0,7252.0,7252.0,7385.0,7995.0
2.0,4790.0,4705.0,4549.0,5870.0
2.0,7625.0,7262.0,6981.0,7359.0
2.0,4068.0,4356.0,4572.0,5637.0
2.0,6613.0,6560.0,6472.0,7329.0
2.0,4817.0,4835.0,4911.0,5966.0
2.0,5537.0,5400.0,5122.0,5756.0
2.0,7209.0,7040.0,7078.0,7586.0
2.0,2107.0,2334.0,2268.0,4050.0
2.0,3511.0,3736.0,4083.0,5050.0
2.0,5773.0,5739.0,5717.0,7030.0
2.0,6457.0,6004.0,5675.0,6267.0
2.0,9110.0,9155.0,9360.0,9803.0
2.0,5890.0,5851.0,5772.0,6855.0
2.0,3031.0,3177.0,3159.0,4128.0
2.0,6186.0,6217.0,6366.0,6964.0
2.0,4778.0,4644.0,4604.0,5085.0
2.0,6486.0,6618.0,6727.0,7157.0
2.0,12298.0,12312.0,12637.0,12909.0
2.0,6951.0,6822.0,6787.0,7158.0
2.0,4021.0,4355.0,4693.0,5612.0
2.0,6339.0,6268.0,6216.0,6329.0
2.0,3435.0,3327.0,3052.0,3168.0
2.0,3145.0,3209.0,3122.0,4915.0
2.0,9038.0,8759.0,8696.0,9473.0
2.0,7800.0,7227.0,6739.0,7828.0
2.0,4129.0,4098.0,4042.0,5097.0
2.0,9016.0,8743.0,8680.0,8901.0
2.0,7590.0,7427.0,7310.0,8253.0
2.0,9677.0,9648.0,9655.0,10331.0
2.0,6423.0,6286.0,6386.0,6908.0
2.0,5495.0,5609.0,5721.0,6502.0
2.0,6864.0,6642.0,6589.0,6906.0
2.0,8072.0,8191.0,8465.0,8825.0
2.0,8638.0,8419.0,8373.0,8461.0
2.0,4387.0,4294.0,4327.0,5391.0
2.0,6350.0,6215.0,6246.0,6936.0
2.0,5216.0,5144.0,5022.0,5675.0
2.0,3424.0,3380.0,3434.0,4731.0
2.0,7567.0,7300.0,7112.0,7335.0
2.0,8615.0,8145.0,7963.0,8084.0
2.0,12768.0,12788.0,12881.0,13313.0
2.0,5502.0,5618.0,5741.0,6481.0
2.0,7905.0,7903.0,7990.0,8163.0
2.0,6223.0,6218.0,6238.0,7084.0
2.0,3226.0,3633.0,3913.0,5221.0
2.0,9402.0,9059.0,9041.0,8852.0
2.0,9419.0,9261.0,9383.0,9660.0
2.0,7348.0,7173.0,7104.0,7749.0
2.0,4678.0,4773.0,4805.0,5680.0
2.0,7596.0,7531.0,7605.0,8055.0
2.0,3347.0,3544.0,3715.0,5398.0
2.0,8126.0,8034.0,8121.0,8317.0
2.0,3765.0,3832.0,3821.0,5409.0
2.0,6756.0,6648.0,6696.0,7261.0
2.0,8909.0,8865.0,9016.0,9272.0
2.0,3389.0,3406.0,3483.0,4882.0
2.0,4180.0,4048.0,3908.0,5335.0
2.0,6568.0,6544.0,6636.0,7252.0
2.0,9417.0,9249.0,9318.0,9873.0
2.0,5503.0,5649.0,5820.0,7036.0
2.0,6359.0,6317.0,6376.0,6875.0
2.0,6293.0,6093.0,5971.0,6784.0
2.0,7261.0,7274.0,7395.0,7939.0
2.0,4743.0,4672.0,4707.0,5232.0
2.0,4581.0,4088.0,3657.0,4949.0
2.0,15688.0,15603.0,15820.0,15893.0
2.0,6725.0,6603.0,6478.0,7659.0
2.0,9142.0,9103.0,9113.0,9342.0
2.0,8483.0,8456.0,8627.0,9040.0
2.0,5897.0,5995.0,6122.0,7406.0
2.0,8399.0,8516.0,8656.0,8750.0
2.0,1642.0,1435.0,1221.0,2445.0
2.0,8401.0,8149.0,8001.0,8165.0
2.0,2767.0,2919.0,2847.0,2508.0
2.0,8969.0,8874.0,9039.0,9179.0
2.0,15104.0,14940.0,15239.0,15550.0
2.0,1605.0,1752.0,1734.0,3889.0
2.0,8122.0,7956.0,7932.0,8099.0
2.0,5834.0,5484.0,5096.0,5522.0
2.0,7832.0,7760.0,7857.0,8166.0
2.0,6793.0,6738.0,6852.0,7563.0
2.0,3066.0,3108.0,2983.0,2782.0
2.0,9167.0,8859.0,8717.0,8930.0
2.0,7626.0,7464.0,7461.0,7521.0
2.0,8402.0,7720.0,7253.0,7921.0
2.0,9429.0,9192.0,9158.0,9124.0
2.0,1557.0,1852.0,1967.0,2732.0
2.0,7594.0,7574.0,7704.0,8671.0
2.0,6372.0,6301.0,6396.0,7311.0
2.0,9022.0,8756.0,8674.0,8866.0
2.0,1350.0,1441.0,1302.0,2758.0
2.0,2596.0,3053.0,3444.0,4314.0
2.0,4279.0,4099.0,3963.0,4938.0
2.0,8700.0,8554.0,8681.0,8703.0
2.0,5199.0,4906.0,4472.0,5939.0
2.0,2859.0,2997.0,3141.0,3585.0
2.0,3805.0,3881.0,3876.0,5376.0
2.0,6620.0,6704.0,6954.0,7205.0
2.0,4739.0,4767.0,4665.0,6169.0
2.0,7665.0,7471.0,7422.0,7537.0
2.0,2490.0,2900.0,3401.0,4163.0
2.0,6014.0,5939.0,6062.0,6533.0
2.0,2263.0,2191.0,2171.0,3531.0
2.0,3234.0,2885.0,2761.0,4350.0
2.0,4062.0,4227.0,4478.0,5208.0
2.0,6674.0,6605.0,6534.0,8066.0
2.0,7387.0,7302.0,7422.0,7947.0
2.0,12195.0,12038.0,12245.0,12230.0
2.0,7765.0,7439.0,7254.0,7453.0
2.0,6988.0,6999.0,7068.0,7759.0
2.0,9642.0,9577.0,9711.0,9686.0
2.0,5344.0,5494.0,5700.0,6495.0
2.0,8379.0,7563.0,7211.0,7787.0
2.0,5099.0,4934.0,4794.0,5917.0
2.0,4693.0,4852.0,5048.0,5934.0
2.0,4380.0,4244.0,4135.0,5636.0
2.0,3943.0,3790.0,3669.0,5518.0
2.0,9316.0,9227.0,9343.0,9171.0
2.0,8113.0,7865.0,7866.0,7751.0
2.0,7036.0,6825.0,6876.0,7142.0
2.0,3815.0,3763.0,3772.0,4621.0
2.0,6098.0,5950.0,5926.0,6556.0
2.0,4220.0,4386.0,4623.0,5320.0
2.0,3606.0,3806.0,3829.0,4978.0
2.0,4296.0,4319.0,4208.0,5155.0
2.0,4093.0,4080.0,4273.0,5471.0
2.0,7036.0,6881.0,6795.0,7376.0
2.0,3520.0,3500.0,3437.0,4863.0
2.0,6053.0,6299.0,6320.0,7060.0
2.0,7439.0,7265.0,7367.0,7200.0
2.0,2422.0,2715.0,2771.0,2223.0
2.0,4674.0,4569.0,4532.0,5826.0
2.0,6580.0,6405.0,6436.0,7452.0
2.0,3944.0,4025.0,4020.0,5399.0
2.0,3658.0,3605.0,3575.0,3785.0
3.0,548.0,579.0,561.0,930.0
3.0,475.0,362.0,226.0,208.0
3.0,442.0,481.0,326.0,1392.0
3.0,463.0,499.0,432.0,807.0
3.0,336.0,396.0,286.0,990.0
3.0,279.0,320.0,217.0,843.0
3.0,479.0,512.0,406.0,1195.0
3.0,456.0,494.0,351.0,1286.0
3.0,350.0,410.0,286.0,1227.0
3.0,458.0,499.0,411.0,1342.0
3.0,331.0,399.0,284.0,1163.0
3.0,390.0,432.0,304.0,1049.0
3.0,354.0,409.0,300.0,1172.0
3.0,797.0,832.0,806.0,938.0
3.0,373.0,423.0,313.0,980.0
3.0,395.0,451.0,345.0,1214.0
3.0,405.0,472.0,392.0,1062.0
3.0,479.0,535.0,411.0,1226.0
3.0,396.0,453.0,321.0,1030.0
3.0,457.0,505.0,444.0,920.0
3.0,481.0,492.0,360.0,1131.0
3.0,260.0,327.0,222.0,902.0
3.0,359.0,378.0,277.0,943.0
3.0,427.0,463.0,350.0,1195.0
3.0,484.0,547.0,455.0,1601.0
3.0,433.0,482.0,337.0,1387.0
3.0,630.0,641.0,659.0,713.0
3.0,423.0,472.0,422.0,623.0
3.0,404.0,455.0,303.0,1306.0
3.0,439.0,495.0,370.0,1577.0
3.0,510.0,499.0,428.0,1307.0
3.0,499.0,514.0,372.0,1208.0
3.0,337.0,417.0,287.0,1098.0
3.0,594.0,680.0,576.0,1136.0
3.0,820.0,883.0,837.0,931.0
3.0,548.0,601.0,500.0,1069.0
3.0,340.0,369.0,293.0,908.0
3.0,327.0,413.0,286.0,1427.0
3.0,424.0,474.0,352.0,1018.0
3.0,389.0,454.0,348.0,1203.0
3.0,553.0,482.0,321.0,280.0
3.0,258.0,288.0,204.0,670.0
3.0,450.0,502.0,380.0,1961.0
3.0,256.0,321.0,253.0,849.0
3.0,467.0,483.0,368.0,1094.0
3.0,473.0,353.0,230.0,204.0
3.0,455.0,524.0,408.0,1348.0
3.0,294.0,350.0,243.0,1099.0
3.0,365.0,401.0,315.0,1159.0
3.0,455.0,510.0,414.0,983.0
3.0,380.0,443.0,291.0,1320.0
3.0,502.0,539.0,475.0,863.0
3.0,432.0,466.0,319.0,1087.0
3.0,400.0,445.0,343.0,820.0
3.0,399.0,475.0,323.0,1421.0
3.0,460.0,468.0,360.0,1086.0
3.0,545.0,589.0,518.0,1079.0
3.0,480.0,565.0,403.0,2097.0
3.0,464.0,504.0,468.0,878.0
3.0,388.0,471.0,404.0,711.0
3.0,413.0,466.0,359.0,1213.0
3.0,494.0,570.0,478.0,1486.0
3.0,429.0,522.0,366.0,1231.0
3.0,473.0,486.0,359.0,1117.0
3.0,505.0,565.0,536.0,656.0
3.0,438.0,478.0,365.0,1332.0
3.0,533.0,552.0,511.0,741.0
3.0,566.0,593.0,521.0,1007.0
3.0,453.0,539.0,453.0,1023.0
3.0,502.0,558.0,515.0,952.0
3.0,400.0,473.0,386.0,1056.0
3.0,454.0,493.0,333.0,1290.0
3.0,416.0,489.0,371.0,1600.0
3.0,400.0,440.0,355.0,1094.0
3.0,452.0,487.0,373.0,1148.0
3.0,414.0,456.0,358.0,1224.0
3.0,245.0,306.0,213.0,1036.0
3.0,336.0,386.0,277.0,1115.0
3.0,519.0,524.0,416.0,1382.0
3.0,410.0,452.0,356.0,964.0
3.0,332.0,375.0,272.0,991.0
3.0,490.0,575.0,403.0,1637.0
3.0,218.0,297.0,189.0,868.0
3.0,264.0,317.0,233.0,798.0
3.0,578.0,615.0,442.0,1357.0
3.0,464.0,340.0,214.0,202.0
3.0,304.0,389.0,255.0,1115.0
3.0,292.0,312.0,224.0,763.0
3.0,475.0,561.0,512.0,968.0
3.0,458.0,483.0,365.0,1162.0
3.0,417.0,467.0,333.0,1253.0
3.0,599.0,685.0,580.0,951.0
3.0,517.0,524.0,392.0,1517.0
3.0,438.0,473.0,348.0,1299.0
3.0,344.0,416.0,281.0,1610.0
3.0,674.0,731.0,647.0,899.0
3.0,747.0,803.0,783.0,987.0
3.0,644.0,711.0,577.0,938.0
3.0,405.0,425.0,325.0,1242.0
3.0,426.0,475.0,431.0,844.0
3.0,460.0,531.0,365.0,1369.0
3.0,831.0,832.0,658.0,1273.0
3.0,455.0,487.0,372.0,1248.0
3.0,494.0,557.0,414.0,1332.0
3.0,439.0,478.0,336.0,1329.0
3.0,295.0,365.0,258.0,946.0
3.0,352.0,368.0,267.0,927.0
3.0,429.0,491.0,388.0,1190.0
3.0,427.0,488.0,342.0,1297.0
3.0,315.0,370.0,268.0,1095.0
3.0,487.0,384.0,253.0,240.0
3.0,340.0,366.0,257.0,938.0
3.0,326.0,365.0,253.0,1155.0
3.0,650.0,702.0,610.0,893.0
3.0,517.0,561.0,414.0,1335.0
3.0,385.0,465.0,387.0,735.0
3.0,412.0,455.0,333.0,1395.0
3.0,674.0,721.0,638.0,995.0
3.0,304.0,351.0,266.0,927.0
3.0,504.0,425.0,277.0,253.0
3.0,543.0,458.0,304.0,276.0
3.0,339.0,417.0,290.0,1217.0
3.0,429.0,507.0,450.0,811.0
3.0,467.0,504.0,451.0,715.0
3.0,626.0,712.0,612.0,976.0
3.0,472.0,393.0,240.0,227.0
3.0,424.0,473.0,342.0,1050.0
3.0,426.0,486.0,378.0,1101.0
3.0,424.0,440.0,360.0,1136.0
3.0,615.0,694.0,574.0,930.0
3.0,452.0,496.0,349.0,1252.0
3.0,575.0,627.0,637.0,1028.0
3.0,382.0,418.0,316.0,1123.0
3.0,476.0,442.0,362.0,1023.0
3.0,799.0,817.0,758.0,935.0
3.0,354.0,473.0,373.0,1499.0
3.0,468.0,517.0,391.0,1254.0
3.0,406.0,477.0,367.0,1021.0
3.0,195.0,246.0,174.0,861.0
3.0,504.0,538.0,408.0,1264.0
3.0,435.0,466.0,340.0,1338.0
3.0,302.0,321.0,227.0,874.0
3.0,382.0,455.0,407.0,660.0
3.0,344.0,383.0,280.0,987.0
3.0,346.0,364.0,267.0,926.0
3.0,412.0,452.0,339.0,1208.0
3.0,426.0,496.0,453.0,949.0
3.0,504.0,580.0,405.0,2070.0
3.0,419.0,480.0,346.0,1386.0
3.0,406.0,443.0,349.0,1021.0
3.0,463.0,527.0,377.0,1338.0
3.0,532.0,526.0,412.0,1164.0
3.0,463.0,548.0,429.0,1148.0
3.0,481.0,571.0,406.0,1650.0
3.0,409.0,448.0,317.0,1193.0
3.0,198.0,263.0,183.0,828.0
3.0,670.0,708.0,606.0,1075.0
3.0,408.0,452.0,373.0,1154.0
3.0,273.0,327.0,245.0,965.0
3.0,311.0,367.0,265.0,864.0
3.0,797.0,812.0,757.0,934.0
3.0,500.0,531.0,375.0,1168.0
3.0,482.0,529.0,484.0,976.0
3.0,509.0,543.0,408.0,1511.0
3.0,444.0,481.0,364.0,1166.0
3.0,456.0,505.0,392.0,1216.0
3.0,437.0,456.0,325.0,1199.0
3.0,561.0,673.0,510.0,1742.0
3.0,414.0,453.0,362.0,999.0
3.0,439.0,490.0,369.0,1192.0
3.0,484.0,486.0,402.0,1196.0
3.0,262.0,305.0,190.0,845.0
3.0,453.0,511.0,379.0,1461.0
3.0,278.0,326.0,240.0,735.0
3.0,804.0,834.0,780.0,1012.0
3.0,274.0,320.0,219.0,797.0
3.0,449.0,498.0,457.0,867.0
3.0,438.0,474.0,377.0,1060.0
3.0,453.0,470.0,376.0,1045.0
3.0,457.0,496.0,357.0,1243.0
3.0,438.0,502.0,379.0,1056.0
3.0,390.0,463.0,414.0,650.0
3.0,512.0,548.0,415.0,1539.0
3.0,453.0,530.0,399.0,1552.0
3.0,417.0,452.0,356.0,1083.0
3.0,551.0,620.0,577.0,988.0
3.0,471.0,520.0,500.0,800.0
3.0,426.0,470.0,368.0,1209.0
3.0,439.0,471.0,411.0,969.0
3.0,460.0,472.0,456.0,689.0
3.0,438.0,490.0,430.0,961.0
3.0,438.0,485.0,451.0,945.0
3.0,450.0,504.0,470.0,774.0
3.0,441.0,488.0,465.0,858.0
3.0,491.0,580.0,475.0,1302.0
3.0,440.0,482.0,337.0,1365.0
3.0,319.0,364.0,279.0,985.0
3.0,531.0,578.0,429.0,1673.0
3.0,310.0,330.0,242.0,799.0
3.0,324.0,372.0,296.0,1031.0
3.0,409.0,493.0,397.0,1158.0
3.0,542.0,593.0,590.0,628.0
3.0,469.0,507.0,387.0,1352.0
3.0,579.0,462.0,315.0,288.0
3.0,489.0,514.0,465.0,1030.0
3.0,399.0,429.0,349.0,1004.0
3.0,486.0,405.0,263.0,226.0
3.0,318.0,371.0,273.0,1067.0
3.0,307.0,415.0,265.0,1337.0
3.0,554.0,567.0,442.0,1426.0
3.0,514.0,566.0,396.0,1503.0
3.0,278.0,305.0,208.0,748.0
3.0,329.0,377.0,270.0,877.0
3.0,413.0,490.0,348.0,1535.0
3.0,211.0,265.0,176.0,827.0
3.0,338.0,367.0,245.0,858.0
3.0,478.0,490.0,350.0,1143.0
3.0,464.0,547.0,450.0,1230.0
3.0,429.0,482.0,339.0,1417.0
3.0,653.0,698.0,603.0,956.0
3.0,460.0,509.0,389.0,1236.0
3.0,446.0,510.0,411.0,1059.0
3.0,447.0,493.0,351.0,1345.0
3.0,530.0,572.0,418.0,1812.0
3.0,415.0,461.0,361.0,1082.0
3.0,490.0,549.0,402.0,1545.0
3.0,320.0,369.0,267.0,1042.0
3.0,574.0,657.0,687.0,734.0
3.0,319.0,417.0,289.0,1326.0
3.0,257.0,309.0,216.0,773.0
3.0,470.0,395.0,242.0,213.0
3.0,509.0,569.0,387.0,1463.0
3.0,384.0,409.0,289.0,1008.0
3.0,390.0,430.0,311.0,1076.0
3.0,342.0,383.0,274.0,964.0
3.0,397.0,519.0,434.0,1761.0
3.0,534.0,584.0,501.0,928.0
3.0,597.0,707.0,662.0,1209.0
3.0,428.0,464.0,348.0,1045.0
3.0,255.0,298.0,215.0,779.0
3.0,525.0,571.0,508.0,763.0
3.0,743.0,770.0,774.0,911.0
3.0,485.0,508.0,502.0,790.0
3.0,307.0,369.0,275.0,852.0
3.0,445.0,462.0,358.0,982.0
3.0,281.0,361.0,252.0,1042.0
3.0,309.0,373.0,262.0,1109.0
3.0,485.0,508.0,374.0,1185.0
3.0,448.0,502.0,412.0,1182.0
3.0,320.0,374.0,241.0,905.0
3.0,498.0,517.0,374.0,1141.0
3.0,338.0,399.0,279.0,1296.0
3.0,425.0,491.0,373.0,1484.0
3.0,536.0,542.0,391.0,1486.0
3.0,410.0,453.0,376.0,1075.0
3.0,387.0,415.0,295.0,973.0
3.0,515.0,541.0,396.0,1378.0
3.0,559.0,617.0,440.0,1411.0
3.0,489.0,566.0,384.0,1490.0
3.0,549.0,595.0,426.0,1417.0
3.0,423.0,452.0,358.0,1115.0
3.0,378.0,491.0,414.0,1125.0
3.0,406.0,484.0,321.0,1632.0
3.0,214.0,258.0,185.0,798.0
3.0,282.0,293.0,218.0,759.0
3.0,394.0,469.0,378.0,1002.0
3.0,520.0,536.0,489.0,749.0
3.0,474.0,510.0,365.0,1172.0
3.0,453.0,498.0,418.0,905.0
3.0,310.0,386.0,260.0,1114.0
3.0,308.0,327.0,226.0,857.0
3.0,483.0,537.0,482.0,826.0
3.0,313.0,340.0,239.0,801.0
3.0,308.0,380.0,254.0,1010.0
3.0,520.0,530.0,470.0,763.0
3.0,441.0,443.0,404.0,976.0
3.0,526.0,554.0,388.0,1525.0
3.0,400.0,452.0,323.0,1478.0
3.0,287.0,332.0,232.0,943.0
3.0,274.0,309.0,217.0,794.0
3.0,372.0,412.0,310.0,1107.0
3.0,290.0,353.0,246.0,1100.0
3.0,436.0,484.0,321.0,1161.0
3.0,516.0,394.0,271.0,223.0
3.0,481.0,527.0,382.0,1131.0
3.0,484.0,486.0,405.0,1187.0
3.0,411.0,489.0,332.0,1389.0
3.0,598.0,654.0,614.0,1121.0
3.0,215.0,270.0,165.0,864.0
3.0,292.0,332.0,246.0,978.0
3.0,269.0,335.0,229.0,804.0
3.0,625.0,683.0,620.0,1350.0
3.0,476.0,529.0,391.0,1324.0
3.0,519.0,562.0,415.0,1581.0
3.0,519.0,564.0,419.0,1274.0
3.0,483.0,475.0,468.0,884.0
3.0,571.0,593.0,568.0,965.0
3.0,351.0,394.0,298.0,1093.0
3.0,469.0,509.0,414.0,1141.0
3.0,522.0,559.0,415.0,1616.0
4.0,916.0,1147.0,1266.0,2493.0
4.0,785.0,982.0,1254.0,1472.0
4.0,1648.0,1889.0,2102.0,2373.0
4.0,1378.0,1613.0,1874.0,1982.0
4.0,862.0,1179.0,1518.0,2387.0
4.0,785.0,931.0,972.0,1505.0
4.0,1215.0,1450.0,1654.0,2276.0
4.0,1327.0,1665.0,1890.0,1984.0
4.0,2154.0,2644.0,3179.0,3378.0
4.0,1243.0,1385.0,1641.0,1814.0
4.0,1461.0,1655.0,1592.0,2718.0
4.0,1792.0,2201.0,2599.0,2680.0
4.0,833.0,1051.0,1264.0,2520.0
4.0,1317.0,1613.0,1898.0,2396.0
4.0,1460.0,1745.0,1921.0,2326.0
4.0,1366.0,1714.0,1871.0,2056.0
4.0,1034.0,1366.0,1886.0,2358.0
4.0,892.0,1183.0,1583.0,2391.0
4.0,928.0,1373.0,1374.0,3225.0
4.0,768.0,1002.0,1162.0,2358.0
4.0,1005.0,1194.0,1412.0,1814.0
4.0,1326.0,1638.0,1855.0,2004.0
4.0,1518.0,2041.0,2357.0,2608.0
4.0,930.0,1107.0,992.0,907.0
4.0,1111.0,1231.0,1465.0,1970.0
4.0,1016.0,1172.0,1459.0,1939.0
4.0,470.0,613.0,444.0,2158.0
4.0,1802.0,2175.0,2426.0,2603.0
4.0,1607.0,1911.0,2113.0,2803.0
4.0,1434.0,1701.0,1855.0,1943.0
4.0,896.0,1123.0,1243.0,2641.0
4.0,906.0,1210.0,1474.0,2143.0
4.0,1171.0,1399.0,1418.0,2441.0
4.0,1719.0,2088.0,2398.0,3052.0
4.0,2135.0,2563.0,2859.0,3014.0
4.0,527.0,576.0,482.0,542.0
4.0,1927.0,2210.0,2445.0,2699.0
4.0,1550.0,1790.0,1997.0,2071.0
4.0,3892.0,4173.0,4363.0,4336.0
4.0,1052.0,935.0,1065.0,1089.0
4.0,1297.0,1603.0,1756.0,2051.0
4.0,1803.0,2130.0,2348.0,2708.0
4.0,619.0,799.0,664.0,2879.0
4.0,1684.0,1825.0,2031.0,2371.0
4.0,1396.0,1680.0,1952.0,2327.0
4.0,1023.0,994.0,1117.0,1204.0
4.0,848.0,1069.0,1155.0,2684.0
4.0,1991.0,2259.0,2492.0,2885.0
4.0,1349.0,1626.0,1818.0,2123.0
4.0,1203.0,1443.0,1565.0,1724.0
4.0,1717.0,2017.0,2307.0,2608.0
4.0,2039.0,2390.0,2661.0,2906.0
4.0,1097.0,1362.0,1630.0,2498.0
4.0,1099.0,1418.0,1916.0,2228.0
4.0,1320.0,1644.0,1844.0,2097.0
4.0,823.0,1001.0,1482.0,1973.0
4.0,1453.0,1917.0,2444.0,2872.0
4.0,1559.0,2050.0,2387.0,2553.0
4.0,1276.0,1558.0,1765.0,2167.0
4.0,1370.0,1632.0,1796.0,2007.0
4.0,1008.0,1106.0,1259.0,1717.0
4.0,2051.0,2409.0,2628.0,2865.0
4.0,1062.0,1240.0,848.0,381.0
4.0,799.0,909.0,994.0,1555.0
4.0,1669.0,2115.0,2588.0,2922.0
4.0,1404.0,1677.0,1986.0,2354.0
4.0,516.0,742.0,505.0,335.0
4.0,1308.0,1533.0,1675.0,2015.0
4.0,454.0,589.0,398.0,2251.0
4.0,1857.0,2125.0,2351.0,2665.0
4.0,838.0,1034.0,1315.0,1865.0
4.0,956.0,1192.0,1513.0,2538.0
4.0,796.0,945.0,1077.0,1870.0
4.0,852.0,1040.0,1249.0,1449.0
4.0,1283.0,1637.0,1929.0,2150.0
4.0,512.0,654.0,498.0,1424.0
4.0,894.0,1283.0,1608.0,2477.0
4.0,4379.0,4939.0,5548.0,5865.0
4.0,752.0,930.0,1138.0,1721.0
4.0,1165.0,1370.0,1471.0,1583.0
4.0,2796.0,3128.0,3474.0,4716.0
4.0,2068.0,2357.0,2571.0,2643.0
4.0,1524.0,1778.0,1988.0,2569.0
4.0,1370.0,1566.0,1807.0,2450.0
4.0,1427.0,1654.0,1870.0,1949.0
4.0,1925.0,2245.0,2514.0,2754.0
4.0,1171.0,1279.0,1415.0,1576.0
4.0,1838.0,2244.0,2505.0,2661.0
4.0,1670.0,2189.0,2546.0,2754.0
4.0,1729.0,2125.0,2686.0,3026.0
4.0,982.0,1128.0,1458.0,1891.0
4.0,1500.0,1926.0,2569.0,2727.0
4.0,1174.0,1279.0,1521.0,1580.0
4.0,1337.0,1540.0,1688.0,2614.0
4.0,1457.0,1710.0,1935.0,2319.0
4.0,1055.0,1236.0,1563.0,2081.0
4.0,2072.0,2433.0,2754.0,2957.0
4.0,1258.0,1529.0,1700.0,1902.0
4.0,2057.0,2441.0,2789.0,3054.0
4.0,1893.0,2393.0,2649.0,2823.0
4.0,933.0,1078.0,1072.0,2362.0
4.0,662.0,914.0,716.0,3252.0
4.0,611.0,837.0,670.0,2569.0
4.0,1684.0,1964.0,2214.0,2328.0
4.0,856.0,1193.0,1370.0,2500.0
4.0,1135.0,1335.0,1583.0,2027.0
4.0,1902.0,2316.0,2813.0,2969.0
4.0,1672.0,1940.0,2123.0,2381.0
4.0,1420.0,1591.0,1803.0,2047.0
4.0,1854.0,2234.0,2523.0,2540.0
4.0,1257.0,1417.0,1528.0,1807.0
4.0,495.0,631.0,510.0,1951.0
4.0,1176.0,1302.0,1591.0,1670.0
4.0,950.0,1139.0,1349.0,1582.0
4.0,807.0,1088.0,1139.0,3086.0
4.0,926.0,1033.0,1256.0,1977.0
4.0,1679.0,2183.0,2532.0,2831.0
4.0,1192.0,1283.0,1383.0,1455.0
4.0,948.0,1063.0,1159.0,1285.0
4.0,987.0,1147.0,1233.0,1386.0
4.0,1146.0,1360.0,1431.0,1380.0
4.0,674.0,904.0,717.0,3135.0
4.0,537.0,629.0,491.0,2458.0
4.0,1127.0,1438.0,1789.0,1814.0
4.0,812.0,917.0,547.0,231.0
4.0,891.0,1154.0,1316.0,2680.0
4.0,1344.0,1809.0,2107.0,2271.0
4.0,710.0,1021.0,773.0,3643.0
4.0,1854.0,2141.0,2389.0,2480.0
4.0,1894.0,2407.0,2993.0,3202.0
4.0,1282.0,1473.0,1766.0,1808.0
4.0,856.0,1058.0,1346.0,2583.0
4.0,1250.0,1556.0,1591.0,1988.0
4.0,1269.0,1282.0,1432.0,1551.0
4.0,1200.0,1453.0,1605.0,1886.0
4.0,1764.0,2102.0,2330.0,2411.0
4.0,1277.0,1593.0,1963.0,2309.0
4.0,530.0,727.0,515.0,340.0
4.0,866.0,1165.0,1248.0,2506.0
4.0,1526.0,1557.0,1759.0,2714.0
4.0,1006.0,1179.0,1389.0,1982.0
4.0,974.0,1351.0,1311.0,3083.0
4.0,849.0,1042.0,1240.0,2282.0
4.0,1622.0,2081.0,2464.0,2725.0
4.0,1404.0,1801.0,2002.0,2318.0
4.0,1492.0,1750.0,1838.0,2330.0
4.0,1684.0,2145.0,2551.0,2678.0
4.0,754.0,1008.0,1150.0,2532.0
4.0,1450.0,1783.0,1806.0,2716.0
4.0,1696.0,2119.0,2712.0,2634.0
4.0,1854.0,2290.0,2773.0,2971.0
4.0,664.0,802.0,840.0,1316.0
4.0,763.0,960.0,829.0,3251.0
4.0,1058.0,1231.0,1468.0,1953.0
4.0,967.0,1154.0,1334.0,1954.0
4.0,1944.0,2316.0,2735.0,2828.0
4.0,1833.0,2307.0,2743.0,2929.0
4.0,822.0,1023.0,1192.0,1979.0
4.0,621.0,797.0,975.0,2039.0
4.0,874.0,988.0,1163.0,1291.0
4.0,1283.0,1517.0,1621.0,1733.0
4.0,1105.0,1171.0,1317.0,1521.0
4.0,839.0,1076.0,1032.0,2575.0
4.0,602.0,749.0,795.0,2211.0
4.0,495.0,657.0,552.0,1187.0
4.0,1598.0,1964.0,2387.0,2569.0
4.0,543.0,876.0,617.0,3674.0
4.0,1232.0,1650.0,2048.0,2197.0
4.0,705.0,909.0,884.0,1616.0
4.0,861.0,1117.0,1410.0,2496.0
4.0,477.0,665.0,444.0,1528.0
4.0,2016.0,2529.0,3004.0,3298.0
4.0,1320.0,1621.0,1792.0,2030.0
4.0,1313.0,1571.0,1799.0,2280.0
4.0,1237.0,1313.0,1485.0,1696.0
4.0,759.0,934.0,1304.0,1891.0
4.0,847.0,1122.0,991.0,3864.0
4.0,811.0,1003.0,1252.0,2590.0
4.0,872.0,1180.0,1428.0,2584.0
4.0,1221.0,1337.0,1413.0,1668.0
4.0,2843.0,3231.0,3604.0,3580.0
4.0,1381.0,1620.0,1854.0,1960.0
4.0,855.0,1093.0,1413.0,2312.0
4.0,1347.0,1690.0,1993.0,2337.0
4.0,1232.0,1243.0,1435.0,1547.0
4.0,1966.0,2267.0,2499.0,2765.0
4.0,1086.0,1194.0,1370.0,1446.0
4.0,1203.0,1231.0,1428.0,1591.0
4.0,1564.0,1878.0,2115.0,2260.0
4.0,2031.0,2323.0,2428.0,2783.0
4.0,1332.0,1416.0,1564.0,1752.0
4.0,1099.0,1369.0,1582.0,2008.0
4.0,629.0,747.0,686.0,1418.0
4.0,1623.0,1905.0,2083.0,2203.0
4.0,1277.0,1521.0,1673.0,2023.0
4.0,2007.0,2298.0,2497.0,2763.0
4.0,1981.0,2339.0,2711.0,3014.0
4.0,1045.0,1189.0,1437.0,1904.0
4.0,1753.0,2260.0,2947.0,3268.0
4.0,700.0,855.0,704.0,1016.0
4.0,1042.0,1230.0,753.0,328.0
4.0,1003.0,1235.0,1559.0,1786.0
4.0,986.0,1170.0,732.0,285.0
4.0,359.0,446.0,366.0,1556.0
4.0,513.0,561.0,450.0,339.0
4.0,1235.0,1527.0,1825.0,2078.0
4.0,520.0,547.0,491.0,990.0
4.0,495.0,636.0,484.0,1766.0
4.0,819.0,1090.0,1108.0,3148.0
4.0,1857.0,2283.0,2612.0,2843.0
4.0,533.0,743.0,533.0,379.0
4.0,772.0,965.0,1238.0,2072.0
4.0,940.0,1134.0,1420.0,1981.0
4.0,1558.0,1990.0,2535.0,3016.0
4.0,1163.0,1387.0,1560.0,2269.0
4.0,1672.0,2014.0,2376.0,2832.0
4.0,1816.0,2293.0,2719.0,2930.0
4.0,713.0,893.0,1142.0,2130.0
4.0,1015.0,1290.0,1377.0,2748.0
4.0,1235.0,1468.0,1556.0,1635.0
4.0,1358.0,1709.0,2074.0,2280.0
4.0,1712.0,1958.0,2063.0,2224.0
4.0,1383.0,1613.0,1836.0,1842.0
4.0,702.0,908.0,1255.0,1672.0
4.0,1722.0,2203.0,2779.0,3160.0
4.0,1733.0,2094.0,2468.0,2658.0
4.0,1541.0,1815.0,2282.0,2480.0
4.0,1135.0,1521.0,1882.0,1984.0
4.0,1613.0,2177.0,2686.0,2979.0
4.0,1250.0,1461.0,1574.0,1639.0
4.0,861.0,1107.0,1151.0,2398.0
4.0,1460.0,1615.0,1777.0,2061.0
4.0,1497.0,1970.0,2484.0,3019.0
4.0,577.0,657.0,578.0,924.0
4.0,1193.0,1194.0,1433.0,1518.0
4.0,2157.0,2671.0,3005.0,3157.0
4.0,807.0,1076.0,1580.0,2116.0
4.0,1432.0,1768.0,2099.0,2117.0
4.0,902.0,1185.0,1551.0,2142.0
4.0,1185.0,1425.0,1455.0,1713.0
4.0,1309.0,1636.0,1979.0,2187.0
4.0,1550.0,1894.0,2181.0,2490.0
4.0,685.0,823.0,757.0,1777.0
4.0,2389.0,1442.0,1445.0,3040.0
4.0,710.0,819.0,814.0,1293.0
4.0,1825.0,2082.0,2268.0,2504.0
4.0,1124.0,1367.0,1639.0,1902.0
4.0,1911.0,2393.0,2710.0,2820.0
4.0,1344.0,1567.0,1774.0,2258.0
4.0,683.0,906.0,710.0,3046.0
4.0,923.0,1143.0,1275.0,1986.0
4.0,1863.0,2213.0,2518.0,2640.0
4.0,1828.0,2363.0,2865.0,2977.0
4.0,1106.0,1285.0,1478.0,1795.0
4.0,1635.0,2013.0,2390.0,2579.0
4.0,2008.0,2279.0,2548.0,2704.0
4.0,1210.0,1508.0,1837.0,2569.0
4.0,1755.0,1954.0,2210.0,2335.0
4.0,977.0,1181.0,799.0,390.0
4.0,749.0,873.0,586.0,288.0
4.0,2132.0,2657.0,3185.0,3342.0
4.0,1127.0,1420.0,1450.0,1817.0
4.0,1738.0,2179.0,2724.0,2942.0
4.0,1489.0,1829.0,1986.0,2259.0
4.0,1760.0,2075.0,2099.0,2560.0
4.0,907.0,1080.0,1183.0,1286.0
4.0,1887.0,2255.0,2580.0,2756.0
4.0,610.0,773.0,1028.0,2145.0
4.0,668.0,881.0,770.0,2788.0
4.0,1381.0,1552.0,2413.0,2524.0
4.0,1105.0,1280.0,1575.0,1877.0
4.0,1819.0,2154.0,2394.0,2639.0
4.0,1112.0,1358.0,1544.0,2515.0
4.0,952.0,1281.0,1605.0,2473.0
4.0,1754.0,1893.0,2247.0,2769.0
4.0,944.0,1146.0,1390.0,1809.0
4.0,578.0,670.0,554.0,1591.0
4.0,1144.0,1525.0,1702.0,2616.0
4.0,523.0,714.0,669.0,2558.0
4.0,1723.0,2041.0,2377.0,2413.0
4.0,409.0,541.0,390.0,1992.0
4.0,1151.0,1345.0,1557.0,2182.0
4.0,882.0,1144.0,1498.0,2153.0
4.0,1670.0,2092.0,2327.0,2645.0
4.0,464.0,689.0,455.0,1798.0
4.0,834.0,930.0,1191.0,1330.0
4.0,849.0,951.0,1138.0,1612.0
4.0,560.0,737.0,715.0,2806.0
4.0,1280.0,1356.0,1568.0,1688.0
4.0,891.0,1111.0,1077.0,3478.0
4.0,1428.0,1649.0,1701.0,1676.0
4.0,1542.0,2051.0,2465.0,2725.0
4.0,532.0,734.0,544.0,1786.0
4.0,1084.0,1386.0,1734.0,2156.0
4.0,558.0,684.0,546.0,2605.0
4.0,1645.0,2042.0,2391.0,2435.0
4.0,1780.0,2231.0,2855.0,3188.0
4.0,1244.0,1359.0,1591.0,1834.0
4.0,1063.0,1226.0,1493.0,1622.0
4.0,878.0,1056.0,906.0,735.0
5.0,354.0,548.0,336.0,3333.0
5.0,320.0,499.0,304.0,3398.0
5.0,403.0,657.0,439.0,3146.0
5.0,358.0,573.0,338.0,3592.0
5.0,379.0,562.0,385.0,2677.0
5.0,369.0,530.0,374.0,3018.0
5.0,424.0,723.0,545.0,4052.0
5.0,370.0,570.0,351.0,3339.0
5.0,429.0,744.0,404.0,3780.0
5.0,371.0,475.0,336.0,2448.0
5.0,343.0,557.0,344.0,3355.0
5.0,447.0,692.0,442.0,3373.0
5.0,404.0,585.0,412.0,2777.0
5.0,347.0,528.0,332.0,3177.0
5.0,335.0,535.0,316.0,3150.0
5.0,381.0,602.0,407.0,2836.0
5.0,409.0,568.0,443.0,3021.0
5.0,379.0,567.0,350.0,3240.0
5.0,429.0,689.0,440.0,3175.0
5.0,358.0,491.0,334.0,2516.0
5.0,389.0,574.0,366.0,3382.0
5.0,303.0,524.0,296.0,3390.0
5.0,351.0,581.0,364.0,3497.0
5.0,398.0,673.0,398.0,4296.0
5.0,308.0,457.0,271.0,2899.0
5.0,455.0,633.0,396.0,3270.0
5.0,307.0,537.0,334.0,3040.0
5.0,373.0,560.0,349.0,3619.0
5.0,408.0,590.0,363.0,3225.0
5.0,453.0,726.0,427.0,3804.0
5.0,363.0,698.0,325.0,4265.0
5.0,427.0,565.0,393.0,3364.0
5.0,275.0,495.0,287.0,3104.0
5.0,321.0,528.0,326.0,3531.0
5.0,451.0,709.0,402.0,3876.0
5.0,370.0,556.0,375.0,2744.0
5.0,385.0,623.0,389.0,3598.0
5.0,379.0,639.0,371.0,3954.0
5.0,366.0,685.0,383.0,3688.0
5.0,391.0,770.0,384.0,4395.0
5.0,383.0,539.0,417.0,3324.0
5.0,480.0,714.0,544.0,2779.0
5.0,303.0,494.0,270.0,3025.0
5.0,344.0,581.0,333.0,3585.0
5.0,388.0,552.0,362.0,2939.0
5.0,479.0,696.0,446.0,3290.0
5.0,333.0,602.0,305.0,3906.0
5.0,361.0,677.0,361.0,3950.0
5.0,338.0,534.0,326.0,2714.0
5.0,428.0,582.0,422.0,3265.0
5.0,429.0,601.0,436.0,3039.0
5.0,342.0,590.0,330.0,3396.0
5.0,331.0,540.0,313.0,3458.0
5.0,387.0,658.0,368.0,4006.0
5.0,426.0,749.0,414.0,3881.0
5.0,294.0,481.0,274.0,2961.0
5.0,450.0,679.0,406.0,3635.0
5.0,394.0,640.0,350.0,3100.0
5.0,455.0,644.0,410.0,3341.0
5.0,285.0,499.0,282.0,2861.0
5.0,477.0,685.0,538.0,2659.0
5.0,445.0,662.0,496.0,2640.0
5.0,371.0,525.0,341.0,2724.0
5.0,468.0,680.0,442.0,3475.0
5.0,404.0,596.0,375.0,2939.0
5.0,396.0,580.0,365.0,3503.0
5.0,397.0,608.0,408.0,3383.0
5.0,363.0,556.0,371.0,2975.0
5.0,380.0,559.0,364.0,3323.0
5.0,353.0,521.0,332.0,2860.0
5.0,381.0,599.0,361.0,3468.0
5.0,401.0,597.0,421.0,3399.0
5.0,386.0,567.0,330.0,3204.0
5.0,304.0,560.0,289.0,3990.0
5.0,428.0,661.0,416.0,2952.0
5.0,376.0,556.0,364.0,3283.0
5.0,391.0,600.0,352.0,2975.0
5.0,383.0,663.0,361.0,3816.0
5.0,320.0,543.0,325.0,3471.0
5.0,451.0,677.0,524.0,2850.0
5.0,377.0,625.0,359.0,3632.0
5.0,325.0,524.0,299.0,3114.0
5.0,378.0,723.0,354.0,4343.0
5.0,374.0,571.0,375.0,3715.0
5.0,293.0,456.0,264.0,3348.0
5.0,403.0,671.0,356.0,4055.0
5.0,375.0,562.0,348.0,2602.0
5.0,343.0,548.0,290.0,3652.0
5.0,396.0,657.0,390.0,3156.0
5.0,337.0,513.0,285.0,3048.0
5.0,416.0,606.0,420.0,2841.0
5.0,400.0,676.0,447.0,3981.0
5.0,407.0,686.0,423.0,4232.0
5.0,365.0,517.0,347.0,2536.0
5.0,362.0,623.0,391.0,3193.0
5.0,420.0,630.0,444.0,3257.0
5.0,372.0,596.0,374.0,2867.0
5.0,345.0,546.0,354.0,2990.0
5.0,414.0,603.0,382.0,3035.0
5.0,357.0,570.0,348.0,4215.0
5.0,327.0,525.0,312.0,3197.0
5.0,318.0,508.0,271.0,2817.0
5.0,399.0,620.0,405.0,3058.0
5.0,374.0,668.0,358.0,4009.0
5.0,368.0,506.0,357.0,3076.0
5.0,427.0,627.0,401.0,3082.0
5.0,395.0,688.0,383.0,4348.0
5.0,421.0,712.0,404.0,3904.0
5.0,394.0,545.0,367.0,3376.0
5.0,468.0,670.0,435.0,3277.0
5.0,415.0,570.0,384.0,3116.0
5.0,364.0,503.0,331.0,2592.0
5.0,425.0,636.0,391.0,2843.0
5.0,411.0,640.0,380.0,3595.0
5.0,357.0,590.0,327.0,3045.0
5.0,341.0,530.0,341.0,2848.0
5.0,287.0,483.0,281.0,3164.0
5.0,465.0,664.0,433.0,3479.0
5.0,335.0,553.0,332.0,3435.0
5.0,435.0,626.0,398.0,3448.0
5.0,338.0,569.0,300.0,3758.0
5.0,440.0,687.0,394.0,3587.0
5.0,427.0,650.0,385.0,3602.0
5.0,409.0,640.0,460.0,2711.0
5.0,380.0,545.0,335.0,2710.0
5.0,408.0,555.0,357.0,2681.0
5.0,378.0,567.0,419.0,3095.0
5.0,333.0,497.0,278.0,2599.0
5.0,322.0,470.0,307.0,3113.0
5.0,303.0,531.0,291.0,3077.0
5.0,394.0,616.0,381.0,2801.0
5.0,392.0,590.0,381.0,3271.0
5.0,382.0,582.0,358.0,2953.0
5.0,369.0,547.0,340.0,2795.0
5.0,384.0,674.0,440.0,3777.0
5.0,412.0,673.0,432.0,4020.0
5.0,369.0,605.0,318.0,3623.0
5.0,419.0,586.0,440.0,2625.0
5.0,358.0,527.0,347.0,3099.0
5.0,380.0,607.0,379.0,2987.0
5.0,346.0,621.0,340.0,4376.0
5.0,375.0,600.0,386.0,3415.0
5.0,352.0,602.0,311.0,3670.0
5.0,365.0,624.0,348.0,4385.0
5.0,384.0,538.0,347.0,3315.0
5.0,364.0,535.0,362.0,2834.0
5.0,387.0,540.0,330.0,3334.0
5.0,444.0,618.0,401.0,3482.0
5.0,368.0,665.0,325.0,4226.0
5.0,357.0,576.0,378.0,3176.0
5.0,376.0,593.0,381.0,2922.0
5.0,376.0,645.0,381.0,4088.0
5.0,408.0,558.0,398.0,2963.0
5.0,364.0,533.0,319.0,2693.0
5.0,312.0,523.0,322.0,3261.0
5.0,353.0,543.0,311.0,3673.0
5.0,297.0,543.0,285.0,3667.0
5.0,346.0,519.0,324.0,2692.0
5.0,370.0,591.0,340.0,3250.0
5.0,397.0,707.0,390.0,3995.0
5.0,447.0,715.0,461.0,3418.0
5.0,371.0,647.0,371.0,3892.0
5.0,357.0,643.0,357.0,4152.0
5.0,328.0,488.0,268.0,3229.0
5.0,376.0,635.0,379.0,4319.0
5.0,384.0,589.0,358.0,3877.0
5.0,422.0,623.0,400.0,3121.0
5.0,317.0,528.0,299.0,3046.0
5.0,383.0,590.0,374.0,3280.0
5.0,324.0,576.0,305.0,3689.0
5.0,304.0,515.0,315.0,3383.0
5.0,388.0,682.0,412.0,3951.0
5.0,472.0,671.0,496.0,3013.0
5.0,421.0,613.0,387.0,3597.0
5.0,382.0,601.0,331.0,4065.0
5.0,344.0,566.0,324.0,3515.0
5.0,388.0,556.0,345.0,3149.0
5.0,399.0,593.0,371.0,3414.0
5.0,396.0,598.0,392.0,3346.0
5.0,318.0,532.0,326.0,3104.0
5.0,350.0,601.0,341.0,3440.0
5.0,387.0,547.0,326.0,3475.0
5.0,364.0,540.0,346.0,3243.0
5.0,318.0,502.0,334.0,2823.0
5.0,451.0,672.0,534.0,3012.0
5.0,339.0,520.0,335.0,2668.0
5.0,335.0,568.0,295.0,3386.0
5.0,431.0,767.0,497.0,4196.0
5.0,320.0,524.0,307.0,3512.0
5.0,373.0,573.0,368.0,3213.0
5.0,421.0,625.0,417.0,3236.0
5.0,370.0,563.0,350.0,3501.0
5.0,396.0,569.0,372.0,3152.0
5.0,328.0,490.0,293.0,3058.0
5.0,377.0,530.0,351.0,3346.0
5.0,396.0,555.0,432.0,2695.0
5.0,407.0,747.0,439.0,3952.0
5.0,322.0,516.0,299.0,3214.0
5.0,445.0,697.0,393.0,3625.0
5.0,449.0,603.0,441.0,2866.0
5.0,344.0,529.0,345.0,2593.0
5.0,362.0,547.0,346.0,2862.0
5.0,280.0,454.0,273.0,3123.0
5.0,311.0,481.0,286.0,3392.0
5.0,400.0,534.0,383.0,2646.0
5.0,412.0,632.0,376.0,2865.0
5.0,451.0,649.0,436.0,3043.0
5.0,302.0,467.0,329.0,2763.0
5.0,380.0,585.0,398.0,2575.0
5.0,401.0,628.0,451.0,2788.0
5.0,375.0,543.0,352.0,2824.0
5.0,430.0,645.0,447.0,3096.0
5.0,285.0,535.0,293.0,3579.0
5.0,310.0,500.0,287.0,3330.0
5.0,401.0,596.0,380.0,3288.0
5.0,300.0,481.0,280.0,3004.0
5.0,424.0,763.0,516.0,3731.0
5.0,293.0,449.0,287.0,2936.0
5.0,407.0,586.0,382.0,3324.0
5.0,432.0,619.0,463.0,3156.0
5.0,422.0,636.0,376.0,3555.0
5.0,448.0,661.0,484.0,2980.0
5.0,395.0,582.0,442.0,2514.0
5.0,311.0,528.0,301.0,3344.0
5.0,312.0,483.0,287.0,3133.0
5.0,428.0,838.0,467.0,4279.0
5.0,388.0,622.0,372.0,3514.0
5.0,426.0,644.0,380.0,3168.0
5.0,381.0,639.0,348.0,3523.0
5.0,366.0,502.0,325.0,2747.0
5.0,336.0,579.0,336.0,3474.0
5.0,411.0,565.0,376.0,3257.0
5.0,395.0,610.0,378.0,3476.0
5.0,416.0,613.0,399.0,3356.0
5.0,356.0,698.0,344.0,4220.0
5.0,406.0,589.0,355.0,3372.0
5.0,370.0,547.0,363.0,3043.0
5.0,367.0,646.0,366.0,3995.0
5.0,321.0,495.0,307.0,2943.0
5.0,415.0,689.0,462.0,3930.0
5.0,356.0,526.0,329.0,3467.0
5.0,363.0,594.0,378.0,3376.0
5.0,380.0,539.0,393.0,2641.0
5.0,307.0,605.0,290.0,3713.0
5.0,414.0,588.0,374.0,2831.0
5.0,339.0,513.0,313.0,3555.0
5.0,445.0,627.0,405.0,3069.0
5.0,388.0,588.0,362.0,3645.0
5.0,410.0,630.0,443.0,3207.0
5.0,367.0,590.0,356.0,3998.0
5.0,370.0,443.0,298.0,2332.0
5.0,476.0,683.0,417.0,3418.0
5.0,353.0,604.0,382.0,4304.0
5.0,385.0,590.0,357.0,3215.0
5.0,426.0,640.0,416.0,3041.0
5.0,429.0,626.0,457.0,2848.0
5.0,471.0,673.0,517.0,2825.0
5.0,403.0,601.0,399.0,2897.0
5.0,405.0,578.0,388.0,2492.0
5.0,469.0,755.0,466.0,3669.0
5.0,367.0,576.0,371.0,3623.0
5.0,403.0,620.0,391.0,3759.0
5.0,376.0,527.0,361.0,2507.0
5.0,481.0,739.0,569.0,2852.0
5.0,409.0,641.0,427.0,3193.0
5.0,338.0,538.0,334.0,3323.0
5.0,322.0,567.0,305.0,3103.0
5.0,296.0,459.0,270.0,3160.0
5.0,448.0,620.0,456.0,2544.0
5.0,363.0,692.0,360.0,3896.0
5.0,359.0,714.0,358.0,4145.0
5.0,398.0,597.0,358.0,3024.0
5.0,390.0,607.0,385.0,3589.0
5.0,350.0,506.0,330.0,2594.0
5.0,412.0,702.0,395.0,3890.0
5.0,377.0,542.0,315.0,3300.0
5.0,326.0,569.0,296.0,3343.0
5.0,486.0,673.0,407.0,3900.0
5.0,367.0,691.0,373.0,3742.0
5.0,385.0,672.0,402.0,3924.0
5.0,331.0,507.0,307.0,3466.0
5.0,326.0,524.0,289.0,3068.0
5.0,404.0,669.0,444.0,3739.0
5.0,317.0,584.0,320.0,2844.0
5.0,441.0,718.0,510.0,2968.0
5.0,379.0,585.0,389.0,3176.0
5.0,401.0,632.0,403.0,3875.0
5.0,391.0,593.0,379.0,3414.0
5.0,417.0,657.0,417.0,3496.0
5.0,394.0,564.0,361.0,2795.0
5.0,356.0,543.0,353.0,3492.0
5.0,420.0,716.0,437.0,3402.0
5.0,406.0,617.0,410.0,2800.0
5.0,395.0,558.0,402.0,3069.0
5.0,415.0,597.0,393.0,2997.0
5.0,464.0,669.0,427.0,3353.0
5.0,373.0,567.0,345.0,2655.0
5.0,391.0,736.0,451.0,4071.0
5.0,402.0,557.0,406.0,2542.0
5.0,425.0,604.0,388.0,3477.0
6.0,524.0,860.0,574.0,3483.0
6.0,755.0,951.0,987.0,1474.0
6.0,420.0,609.0,394.0,3346.0
6.0,518.0,800.0,743.0,2956.0
6.0,546.0,768.0,710.0,2995.0
6.0,424.0,604.0,373.0,3448.0
6.0,592.0,842.0,741.0,2420.0
6.0,384.0,577.0,656.0,1879.0
6.0,403.0,645.0,508.0,2773.0
6.0,500.0,742.0,584.0,2710.0
6.0,430.0,635.0,401.0,3210.0
6.0,400.0,620.0,597.0,3102.0
6.0,477.0,789.0,468.0,4315.0
6.0,434.0,701.0,481.0,3191.0
6.0,398.0,646.0,380.0,3675.0
6.0,509.0,745.0,958.0,2196.0
6.0,429.0,619.0,355.0,3637.0
6.0,419.0,540.0,449.0,973.0
6.0,562.0,783.0,689.0,2661.0
6.0,499.0,802.0,557.0,3030.0
6.0,420.0,654.0,401.0,3604.0
6.0,505.0,566.0,567.0,708.0
6.0,472.0,645.0,422.0,3417.0
6.0,437.0,690.0,1041.0,1492.0
6.0,450.0,665.0,409.0,3313.0
6.0,439.0,644.0,423.0,3433.0
6.0,566.0,780.0,609.0,3136.0
6.0,403.0,584.0,366.0,3947.0
6.0,374.0,620.0,487.0,3302.0
6.0,418.0,647.0,517.0,2964.0
6.0,386.0,585.0,568.0,2510.0
6.0,426.0,647.0,398.0,3642.0
6.0,822.0,955.0,1075.0,1295.0
6.0,402.0,614.0,572.0,2517.0
6.0,484.0,684.0,448.0,3329.0
6.0,425.0,672.0,391.0,4121.0
6.0,642.0,807.0,851.0,2063.0
6.0,404.0,622.0,358.0,3453.0
6.0,492.0,723.0,462.0,3807.0
6.0,382.0,608.0,345.0,3722.0
6.0,426.0,652.0,363.0,3599.0
6.0,439.0,589.0,783.0,1542.0
6.0,450.0,688.0,447.0,3163.0
6.0,380.0,568.0,538.0,2669.0
6.0,590.0,774.0,1084.0,1934.0
6.0,536.0,736.0,637.0,2342.0
6.0,470.0,719.0,462.0,3530.0
6.0,460.0,650.0,413.0,2813.0
6.0,425.0,663.0,424.0,3540.0
6.0,441.0,694.0,407.0,4172.0
6.0,416.0,651.0,497.0,3211.0
6.0,382.0,646.0,473.0,3090.0
6.0,445.0,739.0,606.0,3180.0
6.0,630.0,737.0,641.0,776.0
6.0,556.0,692.0,644.0,992.0
6.0,423.0,589.0,365.0,3805.0
6.0,375.0,593.0,459.0,3123.0
6.0,433.0,674.0,431.0,3411.0
6.0,560.0,866.0,601.0,3440.0
6.0,420.0,656.0,395.0,3587.0
6.0,422.0,641.0,408.0,3221.0
6.0,452.0,696.0,426.0,3138.0
6.0,460.0,665.0,474.0,3557.0
6.0,432.0,670.0,709.0,2471.0
6.0,471.0,719.0,435.0,3794.0
6.0,410.0,647.0,352.0,3781.0
6.0,534.0,812.0,612.0,2990.0
6.0,472.0,695.0,416.0,3946.0
6.0,525.0,732.0,945.0,1717.0
6.0,425.0,652.0,370.0,4123.0
6.0,409.0,568.0,366.0,3173.0
6.0,431.0,674.0,362.0,4080.0
6.0,529.0,742.0,561.0,3578.0
6.0,397.0,584.0,333.0,3495.0
6.0,1019.0,1087.0,1291.0,1673.0
6.0,404.0,607.0,444.0,3321.0
6.0,393.0,586.0,343.0,3739.0
6.0,411.0,615.0,363.0,3403.0
6.0,537.0,810.0,660.0,2699.0
6.0,436.0,654.0,400.0,3981.0
6.0,409.0,611.0,359.0,3599.0
6.0,577.0,785.0,809.0,2109.0
6.0,433.0,627.0,437.0,3083.0
6.0,399.0,572.0,383.0,3059.0
6.0,523.0,809.0,610.0,2794.0
6.0,419.0,603.0,377.0,3935.0
6.0,407.0,595.0,496.0,2827.0
6.0,441.0,623.0,376.0,3513.0
6.0,447.0,628.0,393.0,3276.0
6.0,563.0,908.0,631.0,3555.0
6.0,435.0,611.0,892.0,1311.0
6.0,433.0,628.0,402.0,3484.0
6.0,484.0,782.0,547.0,3215.0
6.0,449.0,636.0,406.0,3338.0
6.0,403.0,610.0,372.0,3695.0
6.0,398.0,579.0,547.0,2226.0
6.0,454.0,670.0,425.0,3613.0
6.0,342.0,558.0,406.0,3525.0
6.0,582.0,802.0,838.0,2188.0
6.0,514.0,709.0,529.0,3294.0
6.0,358.0,571.0,382.0,3590.0
6.0,554.0,573.0,628.0,729.0
6.0,442.0,624.0,375.0,3486.0
6.0,496.0,740.0,469.0,4027.0
6.0,445.0,611.0,580.0,2570.0
6.0,449.0,643.0,912.0,1347.0
6.0,344.0,574.0,380.0,3399.0
6.0,448.0,667.0,404.0,4106.0
6.0,435.0,628.0,398.0,3911.0
6.0,531.0,815.0,590.0,3294.0
6.0,610.0,793.0,1067.0,1665.0
6.0,667.0,912.0,785.0,1182.0
6.0,395.0,667.0,508.0,3167.0
6.0,474.0,696.0,488.0,3795.0
6.0,438.0,646.0,372.0,3815.0
6.0,386.0,660.0,525.0,2874.0
6.0,446.0,644.0,409.0,3380.0
6.0,400.0,628.0,380.0,2697.0
6.0,477.0,687.0,547.0,3302.0
6.0,395.0,593.0,729.0,1608.0
6.0,354.0,519.0,503.0,2315.0
6.0,410.0,633.0,367.0,3958.0
6.0,471.0,815.0,798.0,3052.0
6.0,757.0,1020.0,993.0,2009.0
6.0,445.0,679.0,420.0,3727.0
6.0,467.0,685.0,455.0,3147.0
6.0,427.0,660.0,386.0,4224.0
6.0,532.0,693.0,643.0,1052.0
6.0,422.0,628.0,365.0,3509.0
6.0,419.0,648.0,391.0,3227.0
6.0,333.0,537.0,390.0,3412.0
6.0,371.0,528.0,312.0,3852.0
6.0,554.0,897.0,644.0,3614.0
6.0,391.0,614.0,467.0,3586.0
6.0,436.0,646.0,401.0,3466.0
6.0,482.0,706.0,469.0,3880.0
6.0,539.0,785.0,578.0,3240.0
6.0,427.0,670.0,363.0,3329.0
6.0,425.0,680.0,373.0,4063.0
6.0,565.0,881.0,597.0,3760.0
6.0,475.0,689.0,501.0,3176.0
6.0,455.0,667.0,774.0,1875.0
6.0,442.0,653.0,383.0,3793.0
6.0,415.0,599.0,352.0,3731.0
6.0,424.0,639.0,379.0,3361.0
6.0,429.0,635.0,388.0,3650.0
6.0,413.0,611.0,362.0,3086.0
6.0,506.0,676.0,671.0,1137.0
6.0,437.0,618.0,356.0,3487.0
6.0,447.0,723.0,415.0,2864.0
6.0,399.0,629.0,364.0,3869.0
6.0,355.0,557.0,471.0,2849.0
6.0,414.0,627.0,362.0,3600.0
6.0,382.0,638.0,518.0,2917.0
6.0,359.0,570.0,423.0,3277.0
6.0,471.0,749.0,476.0,3724.0
6.0,476.0,728.0,463.0,3592.0
6.0,529.0,856.0,545.0,3769.0
6.0,421.0,674.0,404.0,3410.0
6.0,429.0,643.0,393.0,3885.0
6.0,389.0,619.0,352.0,4072.0
6.0,426.0,658.0,374.0,3560.0
6.0,1115.0,1299.0,1443.0,2047.0
6.0,441.0,712.0,417.0,3728.0
6.0,537.0,771.0,835.0,3136.0
6.0,424.0,620.0,399.0,3075.0
6.0,625.0,862.0,864.0,2384.0
6.0,444.0,654.0,426.0,3123.0
6.0,409.0,645.0,509.0,3228.0
6.0,438.0,672.0,464.0,3174.0
